2.4256734309 -24.7165807403 237.2435742747
3.0200701679 -24.5103299827 235.6277941578
3.6263175298 -24.3397043559 234.3258430503
4.2252722927 -24.1709537361 233.0380078216
4.8158164307 -24.0022031162 231.7476212056
5.3979499440 -23.8334524964 230.4546832021
5.9743761409 -23.6684518903 229.1926700875
6.5411802358 -23.5015762773 227.9114099706
7.1025573686 -23.3384506781 226.6611597887
7.6543123994 -23.1734500721 225.3916626044
8.1993822652 -23.0103244729 224.1364655658
8.7379071430 -22.8490738806 222.8956111961
9.2683952016 -22.6878232883 221.6523188340
9.7925251750 -22.5284477028 220.4234258383
10.3380445966 -22.4009472345 219.4785992617
10.8488543565 -22.2434466560 218.2619936505
11.3518141999 -22.0859460774 217.0430067444
11.8469241269 -21.9284454989 215.8216385434
12.3686066630 -21.8046950444 214.9022371985
12.8508169077 -21.6490694727 213.6932839514
13.3272765013 -21.4953189080 212.4989143376
13.8289137150 -21.3715684534 211.5734321860
14.2928941575 -21.2196928955 210.3916050954
14.7836408938 -21.0978174479 209.4791473959
15.2332298228 -20.9459418900 208.2929545980
15.7133197101 -20.8259414492 207.3935922224
16.1508500194 -20.6759408982 206.2200695172
16.6182305181 -20.5559404574 205.3168517118
17.0439358360 -20.4078149133 204.1560699711
17.5010800170 -20.2896894794 203.2660750589
17.9523367607 -20.1715640455 202.3742941755
18.3599091187 -20.0253135083 201.2243398589
18.8012566245 -19.9090630813 200.3458810894
19.2368101443 -19.7928126543 199.4656646975
19.6240101000 -19.6465621171 198.3095303536
20.0499347361 -19.5321866970 197.4427211218
20.4674054126 -19.4159362700 196.5570192471
20.8846824046 -19.3034358567 195.7039148373
21.2935054369 -19.1890604366 194.8319177845
21.6966279346 -19.0746850165 193.9581914580
-458.2586235079 -113.6882356758 916.8708694337
-455.1964551955 -113.6882356758 917.7997870587
-452.1342868831 -113.6882356758 918.7287046837
-449.0721185707 -113.6882356758 919.6576223088
-446.0099502583 -113.6882356758 920.5865399338
-442.9477819459 -113.6882356758 921.5154575589
-439.8856136335 -113.6882356758 922.4443751839
-436.8234453211 -113.6882356758 923.3732928090
-433.7612770087 -113.6882356758 924.3022104340
-430.6991086963 -113.6882356758 925.2311280591
-427.6369403839 -113.6882356758 926.1600456841
-424.5747720715 -113.6882356758 927.0889633091
-421.5126037591 -113.6882356758 928.0178809342
-418.4504354467 -113.6882356758 928.9467985592
-415.3882671343 -113.6882356758 929.8757161843
-412.3260988219 -113.6882356758 930.8046338093
-409.2639305095 -113.6882356758 931.7335514344
-406.2017621971 -113.6882356758 932.6624690594
-403.1395938847 -113.6882356758 933.5913866844
-400.0774255722 -113.6882356758 934.5203043095
-397.0152572598 -113.6882356758 935.4492219345
-393.9530889474 -113.6882356758 936.3781395596
-390.8909206350 -113.6882356758 937.3070571846
-387.8287523226 -113.6882356758 938.2359748097
-384.7665840102 -113.6882356758 939.1648924347
-154.8336750195 -41.0277344044 348.6559264436
-145.9050883067 -38.5228814536 328.6030538864
-137.9232921867 -36.2839669796 310.6795299255
-130.7581345114 -34.2750533505 294.5982743940
-124.2777776171 -32.4584060526 280.0563903211
-118.3865698718 -30.8070718619 266.8379722581
-113.0183137849 -29.3030819624 254.7998203064
-108.0928307107 -27.9230768934 243.7539914618
-103.5637917511 -26.6544784836 233.6002429604
-99.3861763271 -25.4847085618 224.2379351560
-95.5162721792 -24.4011889568 215.5660315198
-91.9218683502 -23.3949352606 207.5126627895
-88.5767381628 -22.4587599469 200.0204724641
-85.1602231860 -21.4794594747 192.1580622837
-82.2605327667 -20.6690658730 185.6737142073
-79.5404574061 -19.9089849560 179.5920664597
-78.1631592645 -19.6304683080 177.4790168058
-77.6431701155 -19.6664059400 177.9633192178
-77.1213119387 -19.7023435720 178.4481886048
-76.5975847342 -19.7382812040 178.9336249668
-76.0860163827 -19.7796094808 179.4643572352
-75.5584109457 -19.8155471128 179.9509700702
-75.0335189898 -19.8532816264 180.4530878728
-74.5021287716 -19.8892192584 180.9408488322
-73.9733585831 -19.9269537720 181.4441431079
-73.4381835838 -19.9628914040 181.9330521916
-72.9055351628 -20.0006259177 182.4375229403
-72.3796220234 -20.0419541945 182.9726067416
-71.8429551927 -20.0796887081 183.4782964866
-71.3043258830 -20.1174232217 183.9845815552
-70.7637340941 -20.1551577353 184.4914619476
-70.2211798261 -20.1928922489 184.9989376637
-69.6766630790 -20.2306267625 185.5070087035
-69.1301838527 -20.2683612761 186.0156750671
-68.5938075489 -20.3114864345 186.5702610096
-68.0472382622 -20.3510178297 187.0952828031
-67.4946846958 -20.3887523433 187.6057918353
-66.9440502737 -20.4282837385 188.1320467995
-66.3875250234 -20.4660182521 188.6437606535
-65.8328254661 -20.5055496473 189.1712487882
-65.2760699782 -20.5450810425 189.6993605954
-64.7172585598 -20.5846124378 190.2280960750
-64.1563912109 -20.6241438330 190.7574552272
-63.5934679315 -20.6636752282 191.2874380518
-63.0284887216 -20.7032066234 191.8180445488
-62.4649613991 -20.7445349002 192.3645387215
-61.8958236024 -20.7840662954 192.8964067379
-61.3280442418 -20.8253945722 193.4441907787
-60.7547478585 -20.8649259674 193.9773203144
-60.1827164598 -20.9062542442 194.5263942233
-59.6085356792 -20.9475825210 195.0761201533
-59.0322055167 -20.9889107978 195.6264981046
-58.4537259723 -21.0302390746 196.1775280772
-57.8730970460 -21.0715673514 196.7292100709
-57.2934060245 -21.1146925098 197.2969356584
-56.7084316087 -21.1560207866 197.8499358690
-56.1153201405 -21.1937553003 198.3727482582
-55.5290875219 -21.2368804587 198.9424582581
-54.9406120700 -21.2800056171 199.5128486280
-54.3498937849 -21.3231307755 200.0839193679
-53.7569326664 -21.3662559339 200.6556704777
-68.5719632479 -31.4413710668 287.7132002239
-67.6485233706 -31.4413710668 287.9933283848
-66.7250834933 -31.4413710668 288.2734565457
-65.8016436160 -31.4413710668 288.5535847066
-64.8782037387 -31.4413710668 288.8337128675
-63.9547638614 -31.4413710668 289.1138410284
-63.0313239841 -31.4413710668 289.3939691893
-62.1078841068 -31.4413710668 289.6740973501
-61.1844442296 -31.4413710668 289.9542255110
-60.2610043523 -31.4413710668 290.2343536719
-59.3375644750 -31.4413710668 290.5144818328
-58.4141245977 -31.4413710668 290.7946099937
-57.4906847204 -31.4413710668 291.0747381546
-56.5672448431 -31.4413710668 291.3548663155
-55.6438049658 -31.4413710668 291.6349944764
-54.7203650885 -31.4413710668 291.9151226372
-53.7969252113 -31.4413710668 292.1952507981
-52.8734853340 -31.4413710668 292.4753789590
-51.9500454567 -31.4413710668 292.7555071199
-51.0266055794 -31.4413710668 293.0356352808
-50.1031657021 -31.4413710668 293.3157634417
-49.1797258248 -31.4413710668 293.5958916026
-48.2562859475 -31.4413710668 293.8760197635
-47.3328460702 -31.4413710668 294.1561479243
-46.4094061930 -31.4413710668 294.4362760852
-45.4859663157 -31.4413710668 294.7164042461
-44.5625264384 -31.4413710668 294.9965324070
-43.6390865611 -31.4413710668 295.2766605679
-42.7156466838 -31.4413710668 295.5567887288
-41.7922068065 -31.4413710668 295.8369168897
-40.8687669292 -31.4413710668 296.1170450505
-39.9453270519 -31.4413710668 296.3971732114
-39.0218871747 -31.4413710668 296.6773013723
-38.0984472974 -31.4413710668 296.9574295332
-37.1750074201 -31.4413710668 297.2375576941
-36.2515675428 -31.4413710668 297.5176858550
-35.3281276655 -31.4413710668 297.7978140159
-34.4046877882 -31.4413710668 298.0779421768
-33.4812479109 -31.4413710668 298.3580703376
-32.5578080336 -31.4413710668 298.6381984985
-31.6343681564 -31.4413710668 298.9183266594
-30.7109282791 -31.4413710668 299.1984548203
-29.7874884018 -31.4413710668 299.4785829812
-28.8640485245 -31.4413710668 299.7587111421
-27.9406086472 -31.4413710668 300.0388393030
-27.0171687699 -31.4413710668 300.3189674639
-26.0937288926 -31.4413710668 300.5990956247
-25.1702890153 -31.4413710668 300.8792237856
-24.2468491381 -31.4413710668 301.1593519465
-23.3234092608 -31.4413710668 301.4394801074
-22.3999693835 -31.4413710668 301.7196082683
-21.4765295062 -31.4413710668 301.9997364292
-20.5530896289 -31.4413710668 302.2798645901
-19.6296497516 -31.4413710668 302.5599927510
-18.5801155777 -30.4854300554 294.1918175184
-17.6545120694 -30.2302728682 292.1540104181
-16.7423222259 -29.9769125625 290.1284623536
-15.8434058703 -29.7253491385 288.1152158480
-14.9577230585 -29.4791763592 286.1469392383
-14.0848430867 -29.2330035800 284.1747788500
-13.2247226200 -28.9886276824 282.2150759387
-12.3771314209 -28.7478455479 280.2842284577
-11.5419259215 -28.5088602951 278.3659518486
-10.7189659446 -28.2716719238 276.4602886348
-9.9030460864 -28.0758118294 274.9280363081
-9.1031286581 -27.8422172214 273.0480392902
-8.3150362211 -27.6104194949 271.1807832368
-7.5382581837 -27.3822155317 269.3427511474
-6.7645885249 -27.1917460821 267.8466664300
-6.0096381680 -26.9671358820 266.0346690702
-5.2663692345 -26.7425256820 264.2191281169
-4.5230780582 -26.5556499956 262.7464842187
-3.8003786024 -26.3364304403 260.9736877844
-3.0760648393 -26.1531485171 259.5279432527
-2.7602499786 -24.9420503185 248.6186005368
-2.0772620738 -24.7695496849 247.2582883457
-1.4182734742 -24.5629083008 245.5804618079
-0.7541160239 -24.3904076672 244.2144373439
-0.0980455093 -24.2197039152 242.8622877945
0.5333180329 -24.0184531759 241.2250654452
1.1718162958 -23.8495463055 239.8839134122
1.8025547028 -23.6824363167 238.5567355144
2.4256734309 -23.5171232094 237.2435742747
3.0200701679 -23.3194662334 235.6277941578
3.6263175298 -23.1559500078 234.3258430503
4.2252722927 -22.9942306638 233.0380078216
4.8158164307 -22.8325113197 231.7476212056
5.3979499440 -22.6707919757 230.4546832021
5.9743761409 -22.5126663949 229.1926700875
6.5411802358 -22.3527439324 227.9114099706
7.1025573686 -22.1964152332 226.6611597887
7.6543123994 -22.0382896524 225.3916626044
8.1993822652 -21.8819609532 224.1364655658
8.7379071430 -21.7274291355 222.8956111961
9.2683952016 -21.5728973179 221.6523188340
9.7925251750 -21.4201623819 220.4234258383
10.3380445966 -21.2979744331 219.4785992617
10.8488543565 -21.1470363786 218.2619936505
11.3518141999 -20.9960983242 217.0430067444
11.8469241269 -20.8451602698 215.8216385434
12.3686066630 -20.7265660842 214.9022371985
12.8508169077 -20.5774249113 213.6932839514
13.3272765013 -20.4300806201 212.4989143376
13.8289137150 -20.3114864345 211.5734321860
14.2928941575 -20.1659390249 210.3916050954
14.7836408938 -20.0491417209 209.4791473959
15.2332298228 -19.9035943112 208.2929545980
15.7133197101 -19.7885938888 207.3935922224
16.1508500194 -19.6448433608 206.2200695172
16.6182305181 -19.5298429384 205.3168517118
17.0439358360 -19.3878892919 204.1560699711
17.5010800170 -19.2746857511 203.2660750589
17.9523367607 -19.1614822103 202.3742941755
18.3599091187 -19.0213254455 201.2243398589
18.8012566245 -18.9099187863 200.3458810894
19.2368101443 -18.7985121271 199.4656646975
19.6240101000 -18.6583553622 198.3095303536
20.0499347361 -18.5487455846 197.4427211218
20.4674054126 -18.4373389254 196.5570192471
20.8846824046 -18.3295260294 195.7039148373
21.2935054369 -18.2199162518 194.8319177845
21.6966279346 -18.1103064741 193.9581914580
-458.2586235079 -108.5682949943 916.8708694337
-455.1964551955 -108.5682949943 917.7997870587
-452.1342868831 -108.5682949943 918.7287046837
-449.0721185707 -108.5682949943 919.6576223088
-446.0099502583 -108.5682949943 920.5865399338
-442.9477819459 -108.5682949943 921.5154575589
-439.8856136335 -108.5682949943 922.4443751839
-436.8234453211 -108.5682949943 923.3732928090
-433.7612770087 -108.5682949943 924.3022104340
-430.6991086963 -108.5682949943 925.2311280591
-427.6369403839 -108.5682949943 926.1600456841
-424.5747720715 -108.5682949943 927.0889633091
-421.5126037591 -108.5682949943 928.0178809342
-418.4504354467 -108.5682949943 928.9467985592
-415.3882671343 -108.5682949943 929.8757161843
-412.3260988219 -108.5682949943 930.8046338093
-409.2639305095 -108.5682949943 931.7335514344
-406.2017621971 -108.5682949943 932.6624690594
-403.1395938847 -108.5682949943 933.5913866844
-400.0774255722 -108.5682949943 934.5203043095
-397.0152572598 -108.5682949943 935.4492219345
-393.9530889474 -108.5682949943 936.3781395596
-390.8909206350 -108.5682949943 937.3070571846
-387.8287523226 -108.5682949943 938.2359748097
-164.4412813440 -41.6296116152 370.0866430949
-154.8336750195 -39.0669459520 348.6559264436
-145.9050883067 -36.6709996512 328.6030538864
-137.9232921867 -34.5294292848 310.6795299255
-130.7581345114 -32.6078597265 294.5982743940
-124.2777776171 -30.8701970937 280.0563903211
-118.3865698718 -29.2906600418 266.8379722581
-113.0183137849 -27.8520610075 254.7998203064
-108.0928307107 -26.5320561589 243.7539914618
-103.5637917511 -25.3186142017 233.6002429604
-99.3861763271 -24.1997038417 224.2379351560
-95.5162721792 -23.1632937848 215.5660315198
-91.9218683502 -22.2007902493 207.5126627895
-88.5767381628 -21.3053182100 200.0204724641
-85.1602231860 -20.3685960193 192.1580622837
-82.2605327667 -19.5934369220 185.6737142073
-79.5404574061 -18.8664030014 179.5920664597
-78.1631592645 -18.5999957729 177.4790168058
-77.6431701155 -18.6343708991 177.9633192178
-77.1213119387 -18.6687460254 178.4481886048
-76.5975847342 -18.7031211517 178.9336249668
-76.0860163827 -18.7426525469 179.4643572352
-75.5584109457 -18.7770276731 179.9509700702
-75.0335189898 -18.8131215557 180.4530878728
-74.5021287716 -18.8474966820 180.9408488322
-73.9733585831 -18.8835905646 181.4441431079
-73.4381835838 -18.9179656908 181.9330521916
-72.9055351628 -18.9540595734 182.4375229403
-72.3796220234 -18.9935909686 182.9726067416
-71.8429551927 -19.0296848512 183.4782964866
-71.3043258830 -19.0657787338 183.9845815552
-70.7637340941 -19.1018726164 184.4914619476
-70.2211798261 -19.1379664989 184.9989376637
-69.6766630790 -19.1740603815 185.5070087035
-69.1301838527 -19.2101542641 186.0156750671
-68.5938075489 -19.2514044156 186.5702610096
-68.0472382622 -19.2892170545 187.0952828031
-67.4946846958 -19.3253109371 187.6057918353
-66.9440502737 -19.3631235760 188.1320467995
-66.3875250234 -19.3992174586 188.6437606535
-65.8328254661 -19.4370300975 189.1712487882
-65.2760699782 -19.4748427363 189.6993605954
-64.7172585598 -19.5126553752 190.2280960750
-64.1563912109 -19.5504680141 190.7574552272
-63.5934679315 -19.5882806530 191.2874380518
-63.0284887216 -19.6260932919 191.8180445488
-62.4649613991 -19.6656246871 192.3645387215
-61.8958236024 -19.7034373260 192.8964067379
-61.3280442418 -19.7429687212 193.4441907787
-60.7547478585 -19.7807813601 193.9773203144
-60.1827164598 -19.8203127553 194.5263942233
-59.6085356792 -19.8598441505 195.0761201533
-59.0322055167 -19.8993755457 195.6264981046
-58.4537259723 -19.9389069409 196.1775280772
-57.8730970460 -19.9784383362 196.7292100709
-57.2934060245 -20.0196884877 197.2969356584
-56.7084316087 -20.0592198829 197.8499358690
-56.1153201405 -20.0953137655 198.3727482582
-55.5290875219 -20.1365639170 198.9424582581
-54.9406120700 -20.1778140685 199.5128486280
-54.3498937849 -20.2190642200 200.0839193679
-53.7569326664 -20.2603143715 200.6556704777
-71.1113534987 -31.4786368287 301.9647299401
-70.1449259836 -31.4786368287 302.2578985254
-69.1784984684 -31.4786368287 302.5510671107
-68.2120709532 -31.4786368287 302.8442356960
-67.2456434381 -31.4786368287 303.1374042813
-66.2792159229 -31.4786368287 303.4305728666
-65.3127884078 -31.4786368287 303.7237414520
-64.3463608926 -31.4786368287 304.0169100373
-63.3799333775 -31.4786368287 304.3100786226
-62.4135058623 -31.4786368287 304.6032472079
-61.4470783472 -31.4786368287 304.8964157932
-60.4806508320 -31.4786368287 305.1895843786
-59.5142233169 -31.4786368287 305.4827529639
-58.5477958017 -31.4786368287 305.7759215492
-57.5813682866 -31.4786368287 306.0690901345
-56.6149407714 -31.4786368287 306.3622587198
-55.6485132563 -31.4786368287 306.6554273051
-54.6820857411 -31.4786368287 306.9485958905
-53.7156582260 -31.4786368287 307.2417644758
-52.7492307108 -31.4786368287 307.5349330611
-51.7828031957 -31.4786368287 307.8281016464
-50.8163756805 -31.4786368287 308.1212702317
-49.8499481654 -31.4786368287 308.4144388170
-48.8835206502 -31.4786368287 308.7076074024
-47.9170931351 -31.4786368287 309.0007759877
-46.9506656199 -31.4786368287 309.2939445730
-45.9842381048 -31.4786368287 309.5871131583
-45.0178105896 -31.4786368287 309.8802817436
-44.0513830745 -31.4786368287 310.1734503289
-43.0849555593 -31.4786368287 310.4666189143
-42.1185280442 -31.4786368287 310.7597874996
-41.1521005290 -31.4786368287 311.0529560849
-40.1856730139 -31.4786368287 311.3461246702
-39.2192454987 -31.4786368287 311.6392932555
-38.2528179836 -31.4786368287 311.9324618409
-37.2863904684 -31.4786368287 312.2256304262
-36.3199629533 -31.4786368287 312.5187990115
-35.3535354381 -31.4786368287 312.8119675968
-34.3871079230 -31.4786368287 313.1051361821
-33.4206804078 -31.4786368287 313.3983047674
-32.4542528927 -31.4786368287 313.6914733528
-31.4878253775 -31.4786368287 313.9846419381
-30.5213978623 -31.4786368287 314.2778105234
-29.5549703472 -31.4786368287 314.5709791087
-28.2096421892 -30.5539459321 306.1945651784
-27.2900522667 -30.6106648904 307.0123530708
-26.6556878017 -31.4786368287 315.4504848647
-25.6892602866 -31.4786368287 315.7436534500
-24.4532811704 -30.5831647894 307.6116460394
-23.4283637249 -30.2806636783 305.0488103731
-22.4313396209 -30.0245689876 302.9183721481
-21.4486169700 -29.7701930532 300.7999236457
-20.4803860658 -29.5192546315 298.7097352498
-19.5192729280 -29.2287848145 296.2418411313
-18.5801155777 -28.9830026617 294.1918175184
-17.6545120694 -28.7389392652 292.1540104181
-16.7423222259 -28.4965946250 290.1284623536
-15.8434058703 -28.2559687412 288.1152158480
-14.9577230585 -28.0204991262 286.1469392383
-14.0848430867 -27.7850295113 284.1747788500
-13.2247226200 -27.5512786527 282.2150759387
-12.3771314209 -27.3209653067 280.2842284577
-11.5419259215 -27.0923707170 278.3659518486
-10.7189659446 -26.8654948837 276.4602886348
-9.9030460864 -26.6781504455 274.9280363081
-9.1031286581 -26.4547121248 273.0480392902
-8.3150362211 -26.2329925604 271.1807832368
-7.5382581837 -26.0147105086 269.3427511474
-6.7645885249 -25.8325223394 267.8466664300
-6.0096381680 -25.6176778002 266.0346690702
-5.2663692345 -25.4028332610 264.2191281169
-4.5230780582 -25.2240826044 262.7464842187
-3.8003786024 -25.0143943342 260.9736877844
-3.0760648393 -24.8390811903 259.5279432527
-2.7602499786 -23.6806394351 248.6186005368
-2.0772620738 -23.5156388290 247.2582883457
-1.4182734742 -23.3179818530 245.5804618079
-0.7541160239 -23.1529812469 244.2144373439
-0.0980455093 -22.9896993971 242.8622877945
0.5333180329 -22.7971986900 241.2250654452
1.1718162958 -22.6356355966 239.8839134122
1.8025547028 -22.4757912594 238.5567355144
2.4256734309 -22.3176656786 237.2435742747
3.0200701679 -22.1286024841 235.6277941578
3.6263175298 -21.9721956596 234.3258430503
4.2252722927 -21.8175075914 233.0380078216
4.8158164307 -21.6628195232 231.7476212056
5.3979499440 -21.5081314550 230.4546832021
5.9743761409 -21.3568808994 229.1926700875
6.5411802358 -21.2039115876 227.9114099706
7.1025573686 -21.0543797883 226.6611597887
7.6543123994 -20.9031292327 225.3916626044
8.1993822652 -20.7535974335 224.1364655658
8.7379071430 -20.6057843905 222.8956111961
9.2683952016 -20.4579713476 221.6523188340
9.7925251750 -20.3118770609 220.4234258383
10.3380445966 -20.1950016316 219.4785992617
10.8488543565 -20.0506261013 218.2619936505
11.3518141999 -19.9062505710 217.0430067444
11.8469241269 -19.7618750407 215.8216385434
12.3686066630 -19.6484371240 214.9022371985
12.8508169077 -19.5057803500 213.6932839514
13.3272765013 -19.3648423323 212.4989143376
13.8289137150 -19.2514044156 211.5734321860
14.2928941575 -19.1121851542 210.3916050954
14.7836408938 -19.0004659939 209.4791473959
15.2332298228 -18.8612467325 208.2929545980
15.7133197101 -18.7512463284 207.3935922224
16.1508500194 -18.6137458234 206.2200695172
16.6182305181 -18.5037454193 205.3168517118
17.0439358360 -18.3679636706 204.1560699711
17.5010800170 -18.2596820228 203.2660750589
17.9523367607 -18.1514003751 202.3742941755
18.3599091187 -18.0173373826 201.2243398589
18.8012566245 -17.9107744912 200.3458810894
19.2368101443 -17.8042115998 199.4656646975
19.6240101000 -17.6701486073 198.3095303536
20.0499347361 -17.5653044722 197.4427211218
20.4674054126 -17.4587415808 196.5570192471
20.8846824046 -17.3556162020 195.7039148373
21.2935054369 -17.2507720669 194.8319177845
21.6966279346 -17.1459279318 193.9581914580
-458.2586235079 -103.4483543127 916.8708694337
-455.1964551955 -103.4483543127 917.7997870587
-452.1342868831 -103.4483543127 918.7287046837
-449.0721185707 -103.4483543127 919.6576223088
-446.0099502583 -103.4483543127 920.5865399338
-442.9477819459 -103.4483543127 921.5154575589
-439.8856136335 -103.4483543127 922.4443751839
-436.8234453211 -103.4483543127 923.3732928090
-433.7612770087 -103.4483543127 924.3022104340
-430.6991086963 -103.4483543127 925.2311280591
-427.6369403839 -103.4483543127 926.1600456841
-424.5747720715 -103.4483543127 927.0889633091
-421.5126037591 -103.4483543127 928.0178809342
-418.4504354467 -103.4483543127 928.9467985592
-415.3882671343 -103.4483543127 929.8757161843
-412.3260988219 -103.4483543127 930.8046338093
-409.2639305095 -103.4483543127 931.7335514344
-406.2017621971 -103.4483543127 932.6624690594
-403.1395938847 -103.4483543127 933.5913866844
-400.0774255722 -103.4483543127 934.5203043095
-397.0152572598 -103.4483543127 935.4492219345
-393.9530889474 -103.4483543127 936.3781395596
-390.8909206350 -103.4483543127 937.3070571846
-175.8138424461 -42.4660990628 395.6354669231
-164.4412813440 -39.5523383600 370.0866430949
-154.8336750195 -37.1061574997 348.6559264436
-145.9050883067 -34.8191178489 328.6030538864
-137.9232921867 -32.7748915901 310.6795299255
-130.7581345114 -30.9406661026 294.5982743940
-124.2777776171 -29.2819881349 280.0563903211
-118.3865698718 -27.7742482217 266.8379722581
-113.0183137849 -26.4010400526 254.7998203064
-108.0928307107 -25.1410354244 243.7539914618
-103.5637917511 -23.9827499198 233.6002429604
-99.3861763271 -22.9146991216 224.2379351560
-95.5162721792 -21.9253986127 215.5660315198
-91.9218683502 -21.0066452380 207.5126627895
-88.5767381628 -20.1518764732 200.0204724641
-85.1602231860 -19.2577325639 192.1580622837
-82.2605327667 -18.5178079710 185.6737142073
-79.5404574061 -17.8238210468 179.5920664597
-78.1631592645 -17.5695232377 177.4790168058
-77.6431701155 -17.6023358583 177.9633192178
-77.1213119387 -17.6351484788 178.4481886048
-76.5975847342 -17.6679610993 178.9336249668
-76.0860163827 -17.7056956129 179.4643572352
-75.5584109457 -17.7385082334 179.9509700702
-75.0335189898 -17.7729614850 180.4530878728
-74.5021287716 -17.8057741055 180.9408488322
-73.9733585831 -17.8402273571 181.4441431079
-73.4381835838 -17.8730399776 181.9330521916
-72.9055351628 -17.9074932292 182.4375229403
-72.3796220234 -17.9452277428 182.9726067416
-71.8429551927 -17.9796809943 183.4782964866
-71.3043258830 -18.0141342459 183.9845815552
-70.7637340941 -18.0485874974 184.4914619476
-70.2211798261 -18.0830407490 184.9989376637
-69.6766630790 -18.1174940005 185.5070087035
-69.1301838527 -18.1519472521 186.0156750671
-68.5938075489 -18.1913223967 186.5702610096
-68.0472382622 -18.2274162793 187.0952828031
-67.4946846958 -18.2618695309 187.6057918353
-66.9440502737 -18.2979634134 188.1320467995
-66.3875250234 -18.3324166650 188.6437606535
-65.8328254661 -18.3685105476 189.1712487882
-65.2760699782 -18.4046044301 189.6993605954
-64.7172585598 -18.4406983127 190.2280960750
-64.1563912109 -18.4767921953 190.7574552272
-63.5934679315 -18.5128860779 191.2874380518
-63.0284887216 -18.5489799605 191.8180445488
-62.4649613991 -18.5867144741 192.3645387215
-61.8958236024 -18.6228083567 192.8964067379
-61.3280442418 -18.6605428703 193.4441907787
-60.7547478585 -18.6966367528 193.9773203144
-60.1827164598 -18.7343712664 194.5263942233
-59.6085356792 -18.7721057801 195.0761201533
-59.0322055167 -18.8098402937 195.6264981046
-58.4537259723 -18.8475748073 196.1775280772
-57.8730970460 -18.8853093209 196.7292100709
-57.2934060245 -18.9246844655 197.2969356584
-56.7084316087 -18.9624189791 197.8499358690
-56.1153201405 -18.9968722307 198.3727482582
-55.5290875219 -19.0362473753 198.9424582581
-54.9406120700 -19.0756225199 199.5128486280
-54.3498937849 -19.1149976646 200.0839193679
-53.7569326664 -19.1543728092 200.6556704777
-73.8964021543 -31.5181682239 317.5949402483
-72.8828284145 -31.5181682239 317.9024107774
-71.8692546748 -31.5181682239 318.2098813064
-70.8556809351 -31.5181682239 318.5173518355
-69.8421071954 -31.5181682239 318.8248223646
-68.8285334556 -31.5181682239 319.1322928936
-67.8149597159 -31.5181682239 319.4397634227
-66.8013859762 -31.5181682239 319.7472339518
-65.7878122365 -31.5181682239 320.0547044808
-64.7742384968 -31.5181682239 320.3621750099
-63.7606647570 -31.5181682239 320.6696455390
-62.7470910173 -31.5181682239 320.9771160680
-61.7335172776 -31.5181682239 321.2845865971
-60.7199435379 -31.5181682239 321.5920571262
-59.7063697982 -31.5181682239 321.8995276552
-58.6927960584 -31.5181682239 322.2069981843
-57.6792223187 -31.5181682239 322.5144687134
-56.6656485790 -31.5181682239 322.8219392424
-55.6520748393 -31.5181682239 323.1294097715
-54.6385010995 -31.5181682239 323.4368803006
-53.6249273598 -31.5181682239 323.7443508296
-52.6113536201 -31.5181682239 324.0518213587
-51.5977798804 -31.5181682239 324.3592918878
-50.5842061407 -31.5181682239 324.6667624168
-49.5706324009 -31.5181682239 324.9742329459
-48.5570586612 -31.5181682239 325.2817034750
-47.5434849215 -31.5181682239 325.5891740040
-46.5299111818 -31.5181682239 325.8966445331
-45.5163374420 -31.5181682239 326.2041150622
-44.5027637023 -31.5181682239 326.5115855912
-43.4891899626 -31.5181682239 326.8190561203
-42.4756162229 -31.5181682239 327.1265266494
-41.4620424832 -31.5181682239 327.4339971785
-40.4484687434 -31.5181682239 327.7414677075
-39.4348950037 -31.5181682239 328.0489382366
-38.4213212640 -31.5181682239 328.3564087657
-37.4077475243 -31.5181682239 328.6638792947
-36.3941737846 -31.5181682239 328.9713498238
-35.3806000448 -31.5181682239 329.2788203529
-33.7123687865 -30.3730077675 318.3878624301
-32.5638679172 -30.0645691345 315.6665788346
-31.4565806029 -29.8020681703 313.3899800649
-30.3451000463 -29.5001920614 310.7227786899
-29.2718426003 -29.2442536213 308.5011693006
-28.2096421892 -28.9801120261 306.1945651784
-27.2900522667 -29.0342528500 307.0123530708
-26.3716542227 -29.0998780910 307.9440761727
-25.4466976272 -29.1573001769 308.7961482808
-24.4532811704 -29.0080027535 307.6116460394
-23.4283637249 -28.7192516929 305.0488103731
-22.4313396209 -28.4747976700 302.9183721481
-21.4486169700 -28.2319842781 300.7999236457
-20.4803860658 -27.9924521482 298.7097352498
-19.5192729280 -27.7151855048 296.2418411313
-18.5801155777 -27.4805752680 294.1918175184
-17.6545120694 -27.2476056622 292.1540104181
-16.7423222259 -27.0162766875 290.1284623536
-15.8434058703 -26.7865883438 288.1152158480
-14.9577230585 -26.5618218932 286.1469392383
-14.0848430867 -26.3370554426 284.1747788500
-13.2247226200 -26.1139296230 282.2150759387
-12.3771314209 -25.8940850655 280.2842284577
-11.5419259215 -25.6758811390 278.3659518486
-10.7189659446 -25.4593178435 276.4602886348
-9.9030460864 -25.2804890616 274.9280363081
-9.1031286581 -25.0672070282 273.0480392902
-8.3150362211 -24.8555656258 271.1807832368
-7.5382581837 -24.6472054855 269.3427511474
-6.7645885249 -24.4732985967 267.8466664300
-6.0096381680 -24.2682197184 266.0346690702
-5.2663692345 -24.0631408401 264.2191281169
-4.5230780582 -23.8925152133 262.7464842187
-3.8003786024 -23.6923582281 260.9736877844
-3.0760648393 -23.5250138634 259.5279432527
-2.7602499786 -22.4192285517 248.6186005368
-2.0772620738 -22.2617279731 247.2582883457
-1.4182734742 -22.0730554051 245.5804618079
-0.7541160239 -21.9155548266 244.2144373439
-0.0980455093 -21.7596948791 242.8622877945
0.5333180329 -21.5759442041 241.2250654452
1.1718162958 -21.4217248876 239.8839134122
1.8025547028 -21.2691462022 238.5567355144
2.4256734309 -21.1182081478 237.2435742747
3.0200701679 -20.9377387349 235.6277941578
3.6263175298 -20.7884413115 234.3258430503
4.2252722927 -20.6407845191 233.0380078216
4.8158164307 -20.4931277267 231.7476212056
5.3979499440 -20.3454709343 230.4546832021
5.9743761409 -20.2010954040 229.1926700875
6.5411802358 -20.0550792427 227.9114099706
7.1025573686 -19.9123443434 226.6611597887
7.6543123994 -19.7679688131 225.3916626044
8.1993822652 -19.6252339138 224.1364655658
8.7379071430 -19.4841396455 222.8956111961
9.2683952016 -19.3430453772 221.6523188340
9.7925251750 -19.2035917400 220.4234258383
10.3380445966 -19.0920288302 219.4785992617
10.8488543565 -18.9542158240 218.2619936505
11.3518141999 -18.8164028178 217.0430067444
11.8469241269 -18.6785898116 215.8216385434
12.3686066630 -18.5703081638 214.9022371985
12.8508169077 -18.4341357886 213.6932839514
13.3272765013 -18.2996040445 212.4989143376
13.8289137150 -18.1913223967 211.5734321860
14.2928941575 -18.0584312836 210.3916050954
14.7836408938 -17.9517902669 209.4791473959
15.2332298228 -17.8188991537 208.2929545980
15.7133197101 -17.7138987681 207.3935922224
16.1508500194 -17.5826482859 206.2200695172
16.6182305181 -17.4776479003 205.3168517118
17.0439358360 -17.3480380492 204.1560699711
17.5010800170 -17.2446782945 203.2660750589
17.9523367607 -17.1413185398 202.3742941755
18.3599091187 -17.0133493198 201.2243398589
18.8012566245 -16.9116301962 200.3458810894
19.2368101443 -16.8099110725 199.4656646975
19.6240101000 -16.6819418525 198.3095303536
20.0499347361 -16.5818633599 197.4427211218
20.4674054126 -16.4801442362 196.5570192471
20.8846824046 -16.3817063746 195.7039148373
21.2935054369 -16.2816278820 194.8319177845
21.6966279346 -16.1815493894 193.9581914580
-458.2586235079 -98.3284136312 916.8708694337
-455.1964551955 -98.3284136312 917.7997870587
-452.1342868831 -98.3284136312 918.7287046837
-449.0721185707 -98.3284136312 919.6576223088
-446.0099502583 -98.3284136312 920.5865399338
-442.9477819459 -98.3284136312 921.5154575589
-439.8856136335 -98.3284136312 922.4443751839
-436.8234453211 -98.3284136312 923.3732928090
-433.7612770087 -98.3284136312 924.3022104340
-430.6991086963 -98.3284136312 925.2311280591
-427.6369403839 -98.3284136312 926.1600456841
-424.5747720715 -98.3284136312 927.0889633091
-421.5126037591 -98.3284136312 928.0178809342
-418.4504354467 -98.3284136312 928.9467985592
-415.3882671343 -98.3284136312 929.8757161843
-412.3260988219 -98.3284136312 930.8046338093
-409.2639305095 -98.3284136312 931.7335514344
-406.2017621971 -98.3284136312 932.6624690594
-403.1395938847 -98.3284136312 933.5913866844
-400.0774255722 -98.3284136312 934.5203043095
-397.0152572598 -98.3284136312 935.4492219345
-393.9530889474 -98.3284136312 936.3781395596
-188.8647944681 -43.4360245005 424.9694389076
-175.8138424461 -40.2500752979 395.6354669231
-164.4412813440 -37.4750651047 370.0866430949
-154.8336750195 -35.1453690473 348.6559264436
-145.9050883067 -32.9672360466 328.6030538864
-137.9232921867 -31.0203538953 310.6795299255
-130.7581345114 -29.2734724787 294.5982743940
-124.2777776171 -27.6937791761 280.0563903211
-118.3865698718 -26.2578364016 266.8379722581
-113.0183137849 -24.9500190978 254.7998203064
-108.0928307107 -23.7500146899 243.7539914618
-103.5637917511 -22.6468856379 233.6002429604
-99.3861763271 -21.6296944015 224.2379351560
-95.5162721792 -20.6875034407 215.5660315198
-91.9218683502 -19.8125002266 207.5126627895
-88.5767381628 -18.9984347364 200.0204724641
-85.1602231860 -18.1468691084 192.1580622837
-82.2605327667 -17.4421790200 185.6737142073
-79.5404574061 -16.7812390922 179.5920664597
-78.1631592645 -16.5390507026 177.4790168058
-77.6431701155 -16.5703008174 177.9633192178
-77.1213119387 -16.6015509322 178.4481886048
-76.5975847342 -16.6328010470 178.9336249668
-76.0860163827 -16.6687386790 179.4643572352
-75.5584109457 -16.6999887938 179.9509700702
-75.0335189898 -16.7328014143 180.4530878728
-74.5021287716 -16.7640515291 180.9408488322
-73.9733585831 -16.7968641496 181.4441431079
-73.4381835838 -16.8281142644 181.9330521916
-72.9055351628 -16.8609268849 182.4375229403
-72.3796220234 -16.8968645169 182.9726067416
-71.8429551927 -16.9296771374 183.4782964866
-71.3043258830 -16.9624897580 183.9845815552
-70.7637340941 -16.9953023785 184.4914619476
-70.2211798261 -17.0281149990 184.9989376637
-69.6766630790 -17.0609276196 185.5070087035
-69.1301838527 -17.0937402401 186.0156750671
-68.5938075489 -17.1312403778 186.5702610096
-68.0472382622 -17.1656155041 187.0952828031
-67.4946846958 -17.1984281246 187.6057918353
-66.9440502737 -17.2328032509 188.1320467995
-66.3875250234 -17.2656158714 188.6437606535
-65.8328254661 -17.2999909977 189.1712487882
-65.2760699782 -17.3343661240 189.6993605954
-64.7172585598 -17.3687412502 190.2280960750
-64.1563912109 -17.4031163765 190.7574552272
-63.5934679315 -17.4374915028 191.2874380518
-63.0284887216 -17.4718666290 191.8180445488
-62.4649613991 -17.5078042610 192.3645387215
-61.8958236024 -17.5421793873 192.8964067379
-61.3280442418 -17.5781170193 193.4441907787
-60.7547478585 -17.6124921456 193.9773203144
-60.1827164598 -17.6484297776 194.5263942233
-59.6085356792 -17.6843674096 195.0761201533
-59.0322055167 -17.7203050416 195.6264981046
-58.4537259723 -17.7562426736 196.1775280772
-57.8730970460 -17.7921803056 196.7292100709
-57.2934060245 -17.8296804433 197.2969356584
-56.7084316087 -17.8656180753 197.8499358690
-56.1153201405 -17.8984306959 198.3727482582
-55.5290875219 -17.9359308336 198.9424582581
-54.9406120700 -17.9734309714 199.5128486280
-54.3498937849 -18.0109311091 200.0839193679
-53.7569326664 -18.0484312469 200.6556704777
-76.9657521096 -31.5609808811 334.8207022530
-75.9002193989 -31.5609808811 335.1439346864
-74.8346866882 -31.5609808811 335.4671671197
-73.7691539775 -31.5609808811 335.7903995531
-72.7036212668 -31.5609808811 336.1136319865
-71.6380885561 -31.5609808811 336.4368644199
-70.5725558454 -31.5609808811 336.7600968533
-69.5070231347 -31.5609808811 337.0833292866
-68.4414904240 -31.5609808811 337.4065617200
-67.3759577133 -31.5609808811 337.7297941534
-66.3104250026 -31.5609808811 338.0530265868
-65.2448922919 -31.5609808811 338.3762590202
-64.1793595812 -31.5609808811 338.6994914535
-63.1138268705 -31.5609808811 339.0227238869
-62.0482941598 -31.5609808811 339.3459563203
-60.9827614491 -31.5609808811 339.6691887537
-59.9172287384 -31.5609808811 339.9924211871
-58.8516960276 -31.5609808811 340.3156536204
-57.7861633169 -31.5609808811 340.6388860538
-56.7206306062 -31.5609808811 340.9621184872
-55.6550978955 -31.5609808811 341.2853509206
-54.5895651848 -31.5609808811 341.6085833540
-53.5240324741 -31.5609808811 341.9318157873
-52.4584997634 -31.5609808811 342.2550482207
-51.3929670527 -31.5609808811 342.5782806541
-50.3274343420 -31.5609808811 342.9015130875
-49.2619016313 -31.5609808811 343.2247455208
-48.1963689206 -31.5609808811 343.5479779542
-47.1308362099 -31.5609808811 343.8712103876
-46.0653034992 -31.5609808811 344.1944428210
-44.9997707885 -31.5609808811 344.5176752544
-43.9342380778 -31.5609808811 344.8409076877
-42.8687053671 -31.5609808811 345.1641401211
-40.9711018178 -30.4937894611 334.5876845954
-39.6984899785 -30.1750382903 331.6428006638
-38.4809360630 -29.9062873031 329.2037142681
-37.2503475764 -29.5953486610 326.3277229802
-36.0424813404 -29.2906600418 323.5101512714
-34.8548073857 -28.9890964341 320.7191103953
-33.7123687865 -28.7328454928 318.3878624301
-32.5638679172 -28.4390944138 315.6665788346
-31.4565806029 -28.1890934955 313.3899800649
-30.3451000463 -27.9015924395 310.7227786899
-29.2718426003 -27.6578415441 308.5011693006
-28.2096421892 -27.4062781201 306.1945651784
-27.2900522667 -27.4578408095 307.0123530708
-26.3716542227 -27.5203410391 307.9440761727
-25.4466976272 -27.5750287399 308.7961482808
-24.4532811704 -27.4328407177 307.6116460394
-23.4283637249 -27.1578397075 305.0488103731
-22.4313396209 -26.9250263523 302.9183721481
-21.4486169700 -26.6937755029 300.7999236457
-20.4803860658 -26.4656496650 298.7097352498
-19.5192729280 -26.2015861950 296.2418411313
-18.5801155777 -25.9781478743 294.1918175184
-17.6545120694 -25.7562720593 292.1540104181
-16.7423222259 -25.5359587500 290.1284623536
-15.8434058703 -25.3172079465 288.1152158480
-14.9577230585 -25.1031446602 286.1469392383
-14.0848430867 -24.8890813739 284.1747788500
-13.2247226200 -24.6765805934 282.2150759387
-12.3771314209 -24.4672048243 280.2842284577
-11.5419259215 -24.2593915609 278.3659518486
-10.7189659446 -24.0531408033 276.4602886348
-9.9030460864 -23.8828276777 274.9280363081
-9.1031286581 -23.6797019316 273.0480392902
-8.3150362211 -23.4781386912 271.1807832368
-7.5382581837 -23.2797004623 269.3427511474
-6.7645885249 -23.1140748540 267.8466664300
-6.0096381680 -22.9187616365 266.0346690702
-5.2663692345 -22.7234484191 264.2191281169
-4.5230780582 -22.5609478222 262.7464842187
-3.8003786024 -22.3703221220 260.9736877844
-3.0760648393 -22.2109465366 259.5279432527
-2.7602499786 -21.1578176682 248.6186005368
-2.0772620738 -21.0078171173 247.2582883457
-1.4182734742 -20.8281289572 245.5804618079
-0.7541160239 -20.6781284063 244.2144373439
-0.0980455093 -20.5296903610 242.8622877945
0.5333180329 -20.3546897182 241.2250654452
1.1718162958 -20.2078141787 239.8839134122
1.8025547028 -20.0625011449 238.5567355144
2.4256734309 -19.9187506169 237.2435742747
3.0200701679 -19.7468749856 235.6277941578
3.6263175298 -19.6046869633 234.3258430503
4.2252722927 -19.4640614467 233.0380078216
4.8158164307 -19.3234359302 231.7476212056
5.3979499440 -19.1828104137 230.4546832021
5.9743761409 -19.0453099086 229.1926700875
6.5411802358 -18.9062468978 227.9114099706
7.1025573686 -18.7703088985 226.6611597887
7.6543123994 -18.6328083934 225.3916626044
8.1993822652 -18.4968703941 224.1364655658
8.7379071430 -18.3624949005 222.8956111961
9.2683952016 -18.2281194069 221.6523188340
9.7925251750 -18.0953064190 220.4234258383
10.3380445966 -17.9890560288 219.4785992617
10.8488543565 -17.8578055466 218.2619936505
11.3518141999 -17.7265550645 217.0430067444
11.8469241269 -17.5953045824 215.8216385434
12.3686066630 -17.4921792036 214.9022371985
12.8508169077 -17.3624912273 213.6932839514
13.3272765013 -17.2343657566 212.4989143376
13.8289137150 -17.1312403778 211.5734321860
14.2928941575 -17.0046774129 210.3916050954
14.7836408938 -16.9031145399 209.4791473959
15.2332298228 -16.7765515750 208.2929545980
15.7133197101 -16.6765512077 207.3935922224
16.1508500194 -16.5515507485 206.2200695172
16.6182305181 -16.4515503812 205.3168517118
17.0439358360 -16.3281124278 204.1560699711
17.5010800170 -16.2296745662 203.2660750589
17.9523367607 -16.1312367046 202.3742941755
18.3599091187 -16.0093612569 201.2243398589
18.8012566245 -15.9124859011 200.3458810894
19.2368101443 -15.8156105453 199.4656646975
19.6240101000 -15.6937350976 198.3095303536
20.0499347361 -15.5984222475 197.4427211218
20.4674054126 -15.5015468916 196.5570192471
20.8846824046 -15.4077965473 195.7039148373
21.2935054369 -15.3124836972 194.8319177845
21.6966279346 -15.2171708471 193.9581914580
-458.2586235079 -93.2084729496 916.8708694337
-455.1964551955 -93.2084729496 917.7997870587
-452.1342868831 -93.2084729496 918.7287046837
-449.0721185707 -93.2084729496 919.6576223088
-446.0099502583 -93.2084729496 920.5865399338
-442.9477819459 -93.2084729496 921.5154575589
-439.8856136335 -93.2084729496 922.4443751839
-436.8234453211 -93.2084729496 923.3732928090
-433.7612770087 -93.2084729496 924.3022104340
-430.6991086963 -93.2084729496 925.2311280591
-427.6369403839 -93.2084729496 926.1600456841
-424.5747720715 -93.2084729496 927.0889633091
-421.5126037591 -93.2084729496 928.0178809342
-418.4504354467 -93.2084729496 928.9467985592
-415.3882671343 -93.2084729496 929.8757161843
-412.3260988219 -93.2084729496 930.8046338093
-409.2639305095 -93.2084729496 931.7335514344
-406.2017621971 -93.2084729496 932.6624690594
-403.1395938847 -93.2084729496 933.5913866844
-400.0774255722 -93.2084729496 934.5203043095
-397.0152572598 -93.2084729496 935.4492219345
-393.9530889474 -93.2084729496 936.3781395596
-188.8647944681 -41.0607032755 424.9694389076
-175.8138424461 -38.0340515330 395.6354669231
-164.4412813440 -35.3977918495 370.0866430949
-154.8336750195 -33.1845805949 348.6559264436
-145.9050883067 -31.1153542443 328.6030538864
-137.9232921867 -29.2658162005 310.6795299255
-130.7581345114 -27.6062788547 294.5982743940
-124.2777776171 -26.1055702173 280.0563903211
-118.3865698718 -24.7414245815 266.8379722581
-113.0183137849 -23.4989981429 254.7998203064
-108.0928307107 -22.3589939554 243.7539914618
-103.5637917511 -21.3110213560 233.6002429604
-99.3861763271 -20.3446896815 224.2379351560
-95.5162721792 -19.4496082687 215.5660315198
-91.9218683502 -18.6183552153 207.5126627895
-88.5767381628 -17.8449929996 200.0204724641
-85.1602231860 -17.0360056530 192.1580622837
-82.2605327667 -16.3665500690 185.6737142073
-79.5404574061 -15.7386571376 179.5920664597
-78.1631592645 -15.5085781675 177.4790168058
-77.6431701155 -15.5382657765 177.9633192178
-77.1213119387 -15.5679533856 178.4481886048
-76.5975847342 -15.5976409946 178.9336249668
-76.0860163827 -15.6317817450 179.4643572352
-75.5584109457 -15.6614693541 179.9509700702
-75.0335189898 -15.6926413436 180.4530878728
-74.5021287716 -15.7223289526 180.9408488322
-73.9733585831 -15.7535009421 181.4441431079
-73.4381835838 -15.7831885512 181.9330521916
-72.9055351628 -15.8143605407 182.4375229403
-72.3796220234 -15.8485012911 182.9726067416
-71.8429551927 -15.8796732806 183.4782964866
-71.3043258830 -15.9108452701 183.9845815552
-70.7637340941 -15.9420172596 184.4914619476
-70.2211798261 -15.9731892491 184.9989376637
-69.6766630790 -16.0043612386 185.5070087035
-69.1301838527 -16.0355332281 186.0156750671
-68.5938075489 -16.0711583589 186.5702610096
-68.0472382622 -16.1038147289 187.0952828031
-67.4946846958 -16.1349867184 187.6057918353
-66.9440502737 -16.1676430883 188.1320467995
-66.3875250234 -16.1988150778 188.6437606535
-65.8328254661 -16.2314714478 189.1712487882
-65.2760699782 -16.2641278178 189.6993605954
-64.7172585598 -16.2967841877 190.2280960750
-64.1563912109 -16.3294405577 190.7574552272
-63.5934679315 -16.3620969276 191.2874380518
-63.0284887216 -16.3947532976 191.8180445488
-62.4649613991 -16.4288940480 192.3645387215
-61.8958236024 -16.4615504179 192.8964067379
-61.3280442418 -16.4956911683 193.4441907787
-60.7547478585 -16.5283475383 193.9773203144
-60.1827164598 -16.5624882887 194.5263942233
-59.6085356792 -16.5966290391 195.0761201533
-59.0322055167 -16.6307697895 195.6264981046
-58.4537259723 -16.6649105399 196.1775280772
-57.8730970460 -16.6990512903 196.7292100709
-57.2934060245 -16.7346764212 197.2969356584
-56.7084316087 -16.7688171716 197.8499358690
-56.1153201405 -16.7999891611 198.3727482582
-55.5290875219 -16.8356142919 198.9424582581
-54.9406120700 -16.8712394228 199.5128486280
-54.3498937849 -16.9068645537 200.0839193679
-53.7569326664 -16.9424896845 200.6556704777
-80.3690870871 -31.6096529349 353.9208502312
-79.2459415965 -31.6096529349 354.2615596682
-78.1227961060 -31.6096529349 354.6022691052
-76.9996506154 -31.6096529349 354.9429785422
-75.8765051248 -31.6096529349 355.2836879792
-74.7533596342 -31.6096529349 355.6243974162
-73.6302141436 -31.6096529349 355.9651068532
-72.5070686531 -31.6096529349 356.3058162902
-71.3839231625 -31.6096529349 356.6465257272
-70.2607776719 -31.6096529349 356.9872351641
-69.1376321813 -31.6096529349 357.3279446011
-68.0144866907 -31.6096529349 357.6686540381
-66.8913412002 -31.6096529349 358.0093634751
-65.7681957096 -31.6096529349 358.3500729121
-64.6450502190 -31.6096529349 358.6907823491
-63.5219047284 -31.6096529349 359.0314917861
-62.3987592378 -31.6096529349 359.3722012231
-61.2756137472 -31.6096529349 359.7129106601
-60.1524682567 -31.6096529349 360.0536200971
-59.0293227661 -31.6096529349 360.3943295341
-57.9061772755 -31.6096529349 360.7350389710
-56.7830317849 -31.6096529349 361.0757484080
-55.6598862943 -31.6096529349 361.4164578450
-54.5367408038 -31.6096529349 361.7571672820
-53.4135953132 -31.6096529349 362.0978767190
-52.2904498226 -31.6096529349 362.4385861560
-51.1673043320 -31.6096529349 362.7792955930
-50.0441588414 -31.6096529349 363.1200050300
-47.6781977526 -30.3390232676 349.8608641085
-46.2887242076 -30.0154283290 346.7228369752
-44.9236983728 -29.6962865317 343.6263778879
-43.5826997171 -29.3815978758 340.5716144159
-42.2653077091 -29.0713623613 337.5586741286
-40.9711018178 -28.7655799881 334.5876845954
-39.6984899785 -28.4627663758 331.6428006638
-38.4809360630 -28.2074529380 329.2037142681
-37.2503475764 -27.9120612279 326.3277229802
-36.0424813404 -27.6226070397 323.5101512714
-34.8548073857 -27.3361216124 320.7191103953
-33.7123687865 -27.0926832182 318.3878624301
-32.5638679172 -26.8136196931 315.6665788346
-31.4565806029 -26.5761188207 313.3899800649
-30.3451000463 -26.3029928175 310.7227786899
-29.2718426003 -26.0714294669 308.5011693006
-28.2096421892 -25.8324442141 306.1945651784
-27.2900522667 -25.8814287690 307.0123530708
-26.3716542227 -25.9408039871 307.9440761727
-25.4466976272 -25.9927573029 308.7961482808
-24.4532811704 -25.8576786818 307.6116460394
-23.4283637249 -25.5964277221 305.0488103731
-22.4313396209 -25.3752550347 302.9183721481
-21.4486169700 -25.1555667278 300.7999236457
-20.4803860658 -24.9388471817 298.7097352498
-19.5192729280 -24.6879868853 296.2418411313
-18.5801155777 -24.4757204806 294.1918175184
-17.6545120694 -24.2649384563 292.1540104181
-16.7423222259 -24.0556408125 290.1284623536
-15.8434058703 -23.8478275492 288.1152158480
-14.9577230585 -23.6444674272 286.1469392383
-14.0848430867 -23.4411073052 284.1747788500
-13.2247226200 -23.2392315637 282.2150759387
-12.3771314209 -23.0403245831 280.2842284577
-11.5419259215 -22.8429019829 278.3659518486
-10.7189659446 -22.6469637632 276.4602886348
-9.9030460864 -22.4851662939 274.9280363081
-9.1031286581 -22.2921968350 273.0480392902
-8.3150362211 -22.1007117567 271.1807832368
-7.5382581837 -21.9121954392 269.3427511474
-6.7645885249 -21.7548511113 267.8466664300
-6.0096381680 -21.5693035547 266.0346690702
-5.2663692345 -21.3837559982 264.2191281169
-4.5230780582 -21.2293804311 262.7464842187
-3.8003786024 -21.0482860159 260.9736877844
-3.0760648393 -20.8968792098 259.5279432527
-2.7602499786 -19.8964067848 248.6186005368
-2.0772620738 -19.7539062614 247.2582883457
-1.4182734742 -19.5832025094 245.5804618079
-0.7541160239 -19.4407019859 244.2144373439
-0.0980455093 -19.2996858430 242.8622877945
0.5333180329 -19.1334352323 241.2250654452
1.1718162958 -18.9939034698 239.8839134122
1.8025547028 -18.8558560877 238.5567355144
2.4256734309 -18.7192930861 237.2435742747
3.0200701679 -18.5560112363 235.6277941578
3.6263175298 -18.4209326151 234.3258430503
4.2252722927 -18.2873383744 233.0380078216
4.8158164307 -18.1537441337 231.7476212056
5.3979499440 -18.0201498930 230.4546832021
5.9743761409 -17.8895244132 229.1926700875
6.5411802358 -17.7574145529 227.9114099706
7.1025573686 -17.6282734535 226.6611597887
7.6543123994 -17.4976479737 225.3916626044
8.1993822652 -17.3685068744 224.1364655658
8.7379071430 -17.2408501554 222.8956111961
9.2683952016 -17.1131934365 221.6523188340
9.7925251750 -16.9870210981 220.4234258383
10.3380445966 -16.8860832273 219.4785992617
10.8488543565 -16.7613952693 218.2619936505
11.3518141999 -16.6367073113 217.0430067444
11.8469241269 -16.5120193533 215.8216385434
12.3686066630 -16.4140502434 214.9022371985
12.8508169077 -16.2908466659 213.6932839514
13.3272765013 -16.1691274688 212.4989143376
13.8289137150 -16.0711583589 211.5734321860
14.2928941575 -15.9509235423 210.3916050954
14.7836408938 -15.8544388129 209.4791473959
15.2332298228 -15.7342039962 208.2929545980
15.7133197101 -15.6392036473 207.3935922224
16.1508500194 -15.5204532111 206.2200695172
16.6182305181 -15.4254528621 205.3168517118
17.0439358360 -15.3081868064 204.1560699711
17.5010800170 -15.2146708379 203.2660750589
